# .PCD v0.7 - Point Cloud Data file format
VERSION 0.7
FIELDS x y z
SIZE 4 4 4
TYPE F F F
COUNT 1 1 1
WIDTH 291
HEIGHT 1
VIEWPOINT 0 0 0 1 0 0 0
POINTS 291
DATA ascii
0.64111 -0.382195 -1.7046499
0.69072998 -0.36963001 -1.6962
0.74842 -0.34720001 -1.6902
0.75260001 -0.34077999 -1.6927
0.63615 -0.38161001 -1.6862
0.69279999 -0.36102 -1.6811
0.72209001 -0.34520999 -1.6806
0.73475003 -0.34198001 -1.6854
0.74575007 -0.34404001 -1.6840626
0.75185502 -0.34486002 -1.6870999
0.76087999 -0.34329 -1.6876
0.74475002 -0.33706 -1.683575
0.75447673 -0.33364999 -1.6842334
0.76463795 -0.33595398 -1.68144
0.77356339 -0.33547002 -1.6817334
0.75611001 -0.32960001 -1.6813999
0.76315606 -0.32567799 -1.68338
0.77237999 -0.32170999 -1.6866
0.77601004 -0.31867498 -1.6840501
0.78229749 -0.31558999 -1.6813
0.627325 -0.38151503 -1.6740999
0.63872999 -0.37797001 -1.6779
0.64191002 -0.37621 -1.6779
0.664105 -0.37800002 -1.6781001
0.68787003 -0.36067 -1.6711
0.70059001 -0.35495001 -1.6772
0.73587 -0.35014999 -1.6791
0.70789999 -0.34876001 -1.6724
0.71885997 -0.34560001 -1.6741
0.72411001 -0.34408501 -1.6728001
0.73507124 -0.34481001 -1.6752625
0.74621856 -0.34257427 -1.6734999
0.75967002 -0.34024 -1.6727
0.73579001 -0.33717999 -1.6748
0.74408668 -0.33587334 -1.6775001
0.75480002 -0.33684748 -1.677525
0.76600289 -0.33622715 -1.6767429
0.77390254 -0.33242249 -1.6758499
0.75621498 -0.32668501 -1.67555
0.76575297 -0.32421601 -1.67396
0.77797002 -0.32041001 -1.6709
0.78376997 -0.32054999 -1.6716501
0.79812002 -0.32655501 -1.6703501
0.77452838 -0.31887835 -1.6747167
0.78574097 -0.31750455 -1.6766638
0.79601002 -0.31878999 -1.6713001
0.61198997 -0.40794 -1.6631
0.69423997 -0.40204 -1.6605999
0.70379001 -0.39826 -1.6669
0.61943001 -0.3856667 -1.6653666
0.62389433 -0.38355574 -1.6659143
0.63007998 -0.38049001 -1.6657
0.62545335 -0.37870333 -1.6656001
0.63373798 -0.37665799 -1.66434
0.64428669 -0.37425503 -1.6653166
0.65039003 -0.37398499 -1.66415
0.66145498 -0.37283498 -1.6629
0.75038999 -0.37338001 -1.6614001
0.67344999 -0.36381999 -1.6617
0.77155 -0.36334002 -1.66345
0.6929 -0.35345 -1.6619999
0.71836662 -0.35282999 -1.6671333
0.72443432 -0.35303861 -1.6669859
0.77748001 -0.35639602 -1.66272
0.78552252 -0.35518625 -1.6670001
0.70719004 -0.347105 -1.6645
0.71753001 -0.34532148 -1.6618999
0.7245909 -0.3458091 -1.6643366
0.73354006 -0.34701332 -1.664
0.7464 -0.3426275 -1.6638499
0.75102997 -0.34062499 -1.66635
0.78535223 -0.34539109 -1.6627111
0.79424709 -0.34438002 -1.6667858
0.72838002 -0.33746001 -1.6672
0.73110002 -0.33717999 -1.6658
0.74623001 -0.33068001 -1.6693
0.75327003 -0.33509499 -1.6651001
0.76558399 -0.33524603 -1.6636
0.77379197 -0.33123401 -1.66514
0.78507125 -0.33476752 -1.6631
0.79449219 -0.33431357 -1.6665215
0.75854999 -0.32586998 -1.6669
0.76629126 -0.32493502 -1.6666126
0.77542627 -0.32505813 -1.6662124
0.78439403 -0.32499138 -1.6652335
0.79422164 -0.32425079 -1.6680847
0.80219996 -0.32608002 -1.6680501
0.77280998 -0.31987 -1.6681
0.79131001 -0.31843001 -1.6695
0.68519002 -0.41262001 -1.6535
0.60841 -0.4031325 -1.6524
0.61159247 -0.40432999 -1.6537499
0.68791002 -0.40564999 -1.6538
0.60935998 -0.39736 -1.6522501
0.61207998 -0.397075 -1.651
0.69471002 -0.39899001 -1.6553
0.6148634 -0.38591334 -1.6525501
0.62431496 -0.38282299 -1.65382
0.71743 -0.38521001 -1.6558
0.62858999 -0.37985 -1.6552
0.63541067 -0.37743923 -1.6561929
0.64532876 -0.37617376 -1.655425
0.65100998 -0.37445 -1.6546
0.72781003 -0.37878001 -1.6505001
0.74783999 -0.36515999 -1.6519001
0.75593436 -0.36414856 -1.6540285
0.7637167 -0.36298001 -1.6578001
0.67464 -0.35890502 -1.65475
0.68297005 -0.35311002 -1.6523499
0.69537675 -0.35387668 -1.6531833
0.70492667 -0.35554498 -1.6514333
0.71322 -0.35292 -1.6514
0.72510999 -0.35255 -1.6578
0.75548172 -0.35701165 -1.6514834
0.76506704 -0.35545599 -1.6558399
0.77246583 -0.35425287 -1.6586715
0.69453335 -0.34863335 -1.6526
0.7041043 -0.34519854 -1.652943
0.71147001 -0.34441 -1.6599
0.72640997 -0.34847 -1.6545
0.73397607 -0.34540197 -1.6562999
0.74378496 -0.34191999 -1.65415
0.75658202 -0.34506997 -1.6515
0.76455081 -0.34480149 -1.6540643
0.7747007 -0.34515154 -1.6570386
0.78384 -0.34295499 -1.6592751
0.72229999 -0.33346 -1.6562999
0.74862999 -0.33939999 -1.6523
0.75618666 -0.33879834 -1.6533668
0.76528102 -0.33671302 -1.6562399
0.77438539 -0.33475843 -1.6570922
0.78274667 -0.3362667 -1.6592001
0.61664909 -0.41489911 -1.6468638
0.622132 -0.41558599 -1.64252
0.66404998 -0.41877002 -1.6431334
0.67888999 -0.41442999 -1.647
0.60253 -0.40132999 -1.6432
0.6137253 -0.40523356 -1.6440823
0.67847002 -0.40773001 -1.6409
0.60720497 -0.39216 -1.6449001
0.61465722 -0.39463317 -1.6447092
0.69922 -0.39146 -1.6454999
0.60699499 -0.38717002 -1.64565
0.61663139 -0.38850003 -1.6454571
0.62555271 -0.38422802 -1.6446002
0.63444138 -0.38096717 -1.6440145
0.64112002 -0.382085 -1.64235
0.69922 -0.38984001 -1.6459
0.71820003 -0.3809 -1.6447999
0.63739753 -0.37896499 -1.645775
0.64508718 -0.37617147 -1.6446141
0.72504997 -0.3744075 -1.642875
0.73624003 -0.37241334 -1.6481333
0.65811002 -0.36256999 -1.64405
0.73558402 -0.365778 -1.6437302
0.74453747 -0.36398128 -1.6475501
0.75165999 -0.363745 -1.6494
0.67451167 -0.35804164 -1.6443499
0.68519747 -0.35373247 -1.643
0.69403833 -0.35500333 -1.6434667
0.70475006 -0.35186598 -1.6464399
0.71316999 -0.35304499 -1.6479
0.72975999 -0.35225999 -1.6402
0.73721433 -0.35591716 -1.6423143
0.74502701 -0.35512903 -1.64547
0.75444001 -0.352328 -1.6486
0.68878996 -0.34887499 -1.6445
0.69536799 -0.348396 -1.64616
0.70289749 -0.34814748 -1.649
0.72518003 -0.34719333 -1.6457334
0.735291 -0.34515902 -1.6437
0.7451061 -0.34547171 -1.6444113
0.75410336 -0.34333333 -1.6464002
0.74757004 -0.339975 -1.6468999
0.58805001 -0.42348999 -1.6341
0.62601435 -0.4149029 -1.6374356
0.63332933 -0.41528937 -1.6324267
0.64182001 -0.41914999 -1.6312
0.65206999 -0.41768 -1.6322
0.66905999 -0.41372001 -1.6338501
0.59180999 -0.40726 -1.632
0.61818624 -0.40360999 -1.6383375
0.62482238 -0.40495473 -1.6353811
0.63179398 -0.40673003 -1.6326599
0.61875498 -0.39547166 -1.6382835
0.62342429 -0.39346573 -1.6334145
0.63233668 -0.39268669 -1.6327667
0.60503 -0.38455999 -1.6381
0.62529004 -0.38734084 -1.6353917
0.63442421 -0.38513002 -1.6348573
0.64115667 -0.38355336 -1.6338334
0.70270002 -0.38277501 -1.6342
0.64264166 -0.37664831 -1.6351001
0.70910335 -0.37474 -1.6329668
0.71546996 -0.37273377 -1.6355625
0.72123998 -0.37436 -1.6389
0.64925504 -0.36577499 -1.6352501
0.66773498 -0.361045 -1.63325
0.67639399 -0.36080003 -1.63526
0.68114001 -0.36011001 -1.6368001
0.70902669 -0.36610669 -1.6303333
0.71549004 -0.36431122 -1.6325125
0.72446752 -0.36495751 -1.6366918
0.73071003 -0.36250001 -1.6398
0.65616 -0.35942999 -1.6337
0.66595006 -0.35824668 -1.6336
0.67542589 -0.35443246 -1.6350167
0.68460226 -0.35715333 -1.6346444
0.69320667 -0.35571334 -1.6349334
0.70677996 -0.35142335 -1.6336334
0.71510667 -0.3550733 -1.6320556
0.72504437 -0.35508075 -1.63675
0.73355001 -0.35377002 -1.6392001
0.71607751 -0.34847751 -1.634625
0.72469878 -0.34758127 -1.63735
0.73220503 -0.34776998 -1.6393
0.58091003 -0.42930001 -1.6234
0.63783997 -0.42216 -1.6289999
0.64512873 -0.42247748 -1.6285876
0.63753247 -0.41373253 -1.6287249
0.64417058 -0.41425374 -1.6268876
0.65402377 -0.41327 -1.62605
0.66104501 -0.41140503 -1.6247
0.63552314 -0.40478262 -1.6265261
0.64461571 -0.40463734 -1.6233842
0.65459305 -0.40522769 -1.6218385
0.66398144 -0.40534714 -1.6224285
0.67220002 -0.40795001 -1.6279
0.62587106 -0.39675221 -1.6284111
0.63580942 -0.39498118 -1.627089
0.6444453 -0.39540574 -1.6234579
0.65417504 -0.39403838 -1.6216
0.66491336 -0.39630002 -1.6226667
0.67442501 -0.39605001 -1.6250499
0.63718498 -0.38673753 -1.6283875
0.64428246 -0.38580558 -1.6240375
0.67676675 -0.38693666 -1.6218333
0.68491203 -0.38337001 -1.62288
0.69282496 -0.38147748 -1.624975
0.64369535 -0.37510121 -1.6240411
0.68743002 -0.37411499 -1.6215668
0.69529337 -0.37470585 -1.6247582
0.70341569 -0.37361425 -1.6281286
0.64674503 -0.36558303 -1.6244301
0.65086001 -0.36524001 -1.6214
0.66521204 -0.36187202 -1.62312
0.6736533 -0.36162668 -1.6281333
0.68599147 -0.36543286 -1.6222714
0.69483942 -0.36447689 -1.6236811
0.70415127 -0.36498126 -1.6269
0.71193004 -0.36140001 -1.6271
0.64998001 -0.35837001 -1.6210999
0.65721005 -0.35802668 -1.6247667
0.66327 -0.35819 -1.6281
0.67791998 -0.35896999 -1.6238
0.6854015 -0.35868999 -1.6226002
0.69528282 -0.35594359 -1.6256357
0.705387 -0.35549924 -1.6271309
0.71253002 -0.35328668 -1.6289667
0.57460999 -0.43393001 -1.6149
0.58301997 -0.41231 -1.6178
0.65728253 -0.40231749 -1.6191251
0.66623336 -0.40020666 -1.6175334
0.64820331 -0.39246666 -1.6187
0.65528667 -0.39634001 -1.6181749
0.66495496 -0.39457202 -1.6176701
0.64728302 -0.38291103 -1.6181101
0.65472907 -0.38542002 -1.6144851
0.66431075 -0.38445002 -1.6130502
0.6737743 -0.38429004 -1.6164144
0.64806759 -0.37512168 -1.6173418
0.65464109 -0.374309 -1.6127946
0.66485429 -0.375025 -1.612043
0.67468649 -0.37480217 -1.6147074
0.68259281 -0.37519714 -1.6180288
0.6479643 -0.36619717 -1.6181144
0.65430564 -0.36513004 -1.6137778
0.66645908 -0.36453819 -1.6135092
0.67487335 -0.36429137 -1.6151868
0.68320197 -0.36457402 -1.61842
0.64910001 -0.35960001 -1.619
0.65144002 -0.35816333 -1.6150999
0.67610002 -0.35982001 -1.62
0.68586999 -0.35809001 -1.6199
0.66364998 -0.38292 -1.6097
0.65812498 -0.37788498 -1.6097
0.66320002 -0.37794 -1.6099
0.65817666 -0.36587334 -1.6091666
0.66290802 -0.367226 -1.6090599
0.64994001 -0.35870001 -1.6073999
0.65434998 -0.35918999 -1.6095999
